ply
format ascii 1.0
comment Created by Open3D
element vertex 3377
property double x
property double y
property double z
end_header
64 157 11.7148
65 157 11.6277
66 157 11.533
67 157 11.4322
68 157 11.3241
69 157 11.2073
70 157 11.0828
71 157 10.9553
72 157 10.8265
73 157 10.6887
74 157 10.5394
75 157 10.3821
76 157 10.2189
77 157 10.0472
78 157 9.85956
79 157 9.65764
80 157 9.44374
81 157 9.22036
82 157 8.99277
83 157 8.764
84 157 8.53943
85 157 8.31674
86 157 8.08825
87 157 7.84973
88 157 7.60037
89 157 7.33836
90 157 7.06272
91 157 6.77863
92 157 6.47872
93 157 6.15068
94 157 5.80173
95 157 5.44342
96 157 5.07302
97 157 4.68885
98 157 4.29363
99 157 3.87899
100 157 3.43949
101 157 2.98451
102 157 2.52142
103 157 2.05159
104 157 1.57745
105 157 1.08941
106 157 0.543011
107 157 -0.225375
108 157 -1.697
109 157 -7.36871
110 157 -16.0205
111 157 -20
112 157 -20
113 157 -20
114 157 -20
115 157 -20
116 157 -20
117 157 -20
118 157 -20
119 157 -20
0 158 -20
1 158 -20
2 158 -20
3 158 -20
4 158 -20
5 158 -20
6 158 -20
7 158 -20
8 158 -20
9 158 -18.248
10 158 -13.2688
11 158 -7.7396
12 158 -3.91255
13 158 -1.2335
14 158 0.66635
15 158 1.89578
16 158 2.70271
17 158 3.23634
18 158 3.58735
19 158 3.8383
20 158 4.04451
21 158 4.22228
22 158 4.37474
23 158 4.50896
24 158 4.62485
25 158 4.72871
26 158 4.8723
27 158 5.11857
28 158 5.47181
29 158 5.87644
30 158 6.26905
31 158 6.63084
32 158 6.97801
33 158 7.32091
34 158 7.65805
35 158 7.98644
36 158 8.30698
37 158 8.6162
38 158 8.90892
39 158 9.18929
40 158 9.45724
41 158 9.71072
42 158 9.9502
43 158 10.1758
44 158 10.391
45 158 10.59
46 158 10.7693
47 158 10.9335
48 158 11.0807
49 158 11.2128
50 158 11.3333
51 158 11.4444
52 158 11.5478
53 158 11.6334
54 158 11.7016
55 158 11.7585
56 158 11.7994
57 158 11.8219
58 158 11.8263
59 158 11.8145
60 158 11.7889
61 158 11.7532
62 158 11.7014
63 158 11.6284
64 158 11.5428
65 158 11.4508
66 158 11.3511
67 158 11.2426
68 158 11.1268
69 158 11.0047
70 158 10.8786
71 158 10.7491
72 158 10.6148
73 158 10.4751
74 158 10.3262
75 158 10.1658
76 158 9.99792
77 158 9.8202
78 158 9.62504
79 158 9.4152
80 158 9.19479
81 158 8.96692
82 158 8.73544
83 158 8.5017
84 158 8.2705
85 158 8.04195
86 158 7.81205
87 158 7.58115
88 158 7.35512
89 158 7.13148
90 158 6.89953
91 158 6.66071
92 158 6.41204
93 158 6.14434
94 158 5.85084
95 158 5.52668
96 158 5.17694
97 158 4.80866
98 158 4.42507
99 158 4.02255
100 158 3.59479
101 158 3.14687
102 158 2.68911
103 158 2.22686
104 158 1.75875
105 158 1.26112
106 158 0.65811
107 158 -0.245326
108 158 -1.87506
109 158 -7.56099
110 158 -16.0895
111 158 -20
112 158 -20
113 158 -20
114 158 -20
115 158 -20
116 158 -20
117 158 -20
118 158 -20
119 158 -20
0 159 -20
1 159 -20
2 159 -20
3 159 -20
4 159 -20
5 159 -20
6 159 -20
7 159 -20
8 159 -20
9 159 -19.4579
10 159 -16.0701
11 159 -10.0079
12 159 -5.10058
13 159 -2.12196
14 159 -0.00231338
15 159 1.36123
16 159 2.24926
17 159 2.8435
18 159 3.24081
19 159 3.52748
20 159 3.76951
21 159 3.98539
22 159 4.17508
23 159 4.34509
24 159 4.49798
25 159 4.63156
26 159 4.77542
27 159 4.99258
28 159 5.31615
29 159 5.70456
30 159 6.08806
31 159 6.44583
32 159 6.79246
33 159 7.13415
34 159 7.47161
35 159 7.8033
36 159 8.12762
37 159 8.44442
38 159 8.75003
39 159 9.04066
40 159 9.31427
41 159 9.57452
42 159 9.82156
43 159 10.0514
44 159 10.2672
45 159 10.4644
46 159 10.6422
47 159 10.8074
48 159 10.958
49 159 11.0977
50 159 11.2261
51 159 11.3435
52 159 11.4533
53 159 11.5435
54 159 11.611
55 159 11.6638
56 159 11.7067
57 159 11.7346
58 159 11.7367
59 159 11.7157
60 159 11.6762
61 159 11.6208
62 159 11.5519
63 159 11.4691
64 159 11.3765
65 159 11.2762
66 159 11.168
67 159 11.0508
68 159 10.9261
69 159 10.7988
70 159 10.6695
71 159 10.5352
72 159 10.3968
73 159 10.2548
74 159 10.1019
75 159 9.93733
76 159 9.76453
77 159 9.57841
78 159 9.37384
79 159 9.15704
80 159 8.93291
81 159 8.70133
82 159 8.46583
83 159 8.22856
84 159 7.99214
85 159 7.75889
86 159 7.5278
87 159 7.30126
88 159 7.09264
89 159 6.90403
90 159 6.71602
91 159 6.51949
92 159 6.31339
93 159 6.09405
94 159 5.84799
95 159 5.56177
96 159 5.24076
97 159 4.89242
98 159 4.5215
99 159 4.1302
100 159 3.71325
101 159 3.27298
102 159 2.82265
103 159 2.37098
104 159 1.91422
105 159 1.41567
106 159 0.773192
107 159 -0.246659
108 159 -2.04109
109 159 -7.7589
110 159 -16.1636
111 159 -20
112 159 -20
113 159 -20
114 159 -20
115 159 -20
116 159 -20
117 159 -20
118 159 -20
119 159 -20
0 160 -20
1 160 -20
2 160 -20
3 160 -20
4 160 -20
5 160 -20
6 160 -20
7 160 -20
8 160 -20
9 160 -20
10 160 -17.576
11 160 -11.7376
12 160 -6.46021
13 160 -3.15435
14 160 -0.773983
15 160 0.761762
16 160 1.75461
17 160 2.41553
18 160 2.86129
19 160 3.18324
20 160 3.45731
21 160 3.7103
22 160 3.9396
23 160 4.14393
24 160 4.33028
25 160 4.50075
26 160 4.66083
27 160 4.85783
28 160 5.1495
29 160 5.51808
30 160 5.89321
31 160 6.24621
32 160 6.58981
33 160 6.93044
34 160 7.26879
35 160 7.60479
36 160 7.93596
37 160 8.26264
38 160 8.58313
39 160 8.88942
40 160 9.17626
41 160 9.44564
42 160 9.69525
43 160 9.92632
44 160 10.143
45 160 10.3383
46 160 10.5154
47 160 10.6808
48 160 10.8325
49 160 10.9775
50 160 11.1154
51 160 11.2416
52 160 11.3573
53 160 11.4553
54 160 11.5282
55 160 11.5819
56 160 11.6291
57 160 11.66
58 160 11.6589
59 160 11.6333
60 160 11.5835
61 160 11.5096
62 160 11.423
63 160 11.3269
64 160 11.2231
65 160 11.1125
66 160 10.9935
67 160 10.8643
68 160 10.7277
69 160 10.5925
70 160 10.4564
71 160 10.3154
72 160 10.1743
73 160 10.0283
74 160 9.86924
75 160 9.69937
76 160 9.51868
77 160 9.32293
78 160 9.11057
79 160 8.88796
80 160 8.66119
81 160 8.42629
82 160 8.18429
83 160 7.94232
84 160 7.70451
85 160 7.47213
86 160 7.2427
87 160 7.01914
88 160 6.82102
89 160 6.65791
90 160 6.51071
91 160 6.3578
92 160 6.19286
93 160 6.01545
94 160 5.81079
95 160 5.56276
96 160 5.27104
97 160 4.94126
98 160 4.5797
99 160 4.19329
100 160 3.78348
101 160 3.35131
102 160 2.90943
103 160 2.46953
104 160 2.02468
105 160 1.52535
106 160 0.85957
107 160 -0.216189
108 160 -2.123
109 160 -7.89898
110 160 -16.2257
111 160 -20
112 160 -20
113 160 -20
114 160 -20
115 160 -20
116 160 -20
117 160 -20
118 160 -20
119 160 -20
0 161 -20
1 161 -20
2 161 -20
3 161 -20
4 161 -20
5 161 -20
6 161 -20
7 161 -20
8 161 -20
9 161 -20
10 161 -18.4147
11 161 -13.7823
12 161 -8.33444
13 161 -4.34257
14 161 -1.67539
15 161 0.0860709
16 161 1.21277
17 161 1.95227
18 161 2.45444
19 161 2.81671
20 161 3.11953
21 161 3.40219
22 161 3.66448
23 161 3.90116
24 161 4.12038
25 161 4.325
26 161 4.51098
27 161 4.70573
28 161 4.97014
29 161 5.3147
30 161 5.67972
31 161 6.02835
32 161 6.37031
33 161 6.71115
34 161 7.049
35 161 7.38727
36 161 7.72764
37 161 8.06754
38 161 8.40506
39 161 8.73195
40 161 9.03483
41 161 9.31204
42 161 9.56421
43 161 9.79665
44 161 10.0123
45 161 10.2057
46 161 10.3847
47 161 10.5534
48 161 10.7096
49 161 10.8592
50 161 11.0033
51 161 11.1383
52 161 11.2626
53 161 11.3714
54 161 11.4544
55 161 11.5149
56 161 11.5666
57 161 11.5981
58 161 11.5973
59 161 11.5724
60 161 11.5161
61 161 11.4265
62 161 11.3221
63 161 11.2111
64 161 11.0936
65 161 10.9687
66 161 10.834
67 161 10.6905
68 161 10.5421
69 161 10.3947
70 161 10.247
71 161 10.0972
72 161 9.94893
73 161 9.79586
74 161 9.63013
75 161 9.45214
76 161 9.26144
77 161 9.05682
78 161 8.83776
79 161 8.60754
80 161 8.37226
81 161 8.13304
82 161 7.88871
83 161 7.64497
84 161 7.40785
85 161 7.17731
86 161 6.95056
87 161 6.73216
88 161 6.5432
89 161 6.39668
90 161 6.2818
91 161 6.17377
92 161 6.05396
93 161 5.91703
94 161 5.7496
95 161 5.5327
96 161 5.26232
97 161 4.94704
98 161 4.59442
99 161 4.21116
100 161 3.80253
101 161 3.37299
102 161 2.9335
103 161 2.49519
104 161 2.04546
105 161 1.52495
106 161 0.834049
107 161 -0.228682
108 161 -2.0944
109 161 -7.86566
110 161 -16.2159
111 161 -20
112 161 -20
113 161 -20
114 161 -20
115 161 -20
116 161 -20
117 161 -20
118 161 -20
119 161 -20
0 162 -20
1 162 -20
2 162 -20
3 162 -20
4 162 -20
5 162 -20
6 162 -20
7 162 -20
8 162 -20
9 162 -20
10 162 -19.5125
11 162 -16.3627
12 162 -10.5514
13 162 -5.67326
14 162 -2.69986
15 162 -0.671099
16 162 0.609091
17 162 1.44248
18 162 2.02083
19 162 2.44114
20 162 2.77419
21 162 3.07385
22 162 3.35536
23 162 3.61875
24 162 3.86776
25 162 4.1008
26 162 4.31782
27 162 4.52941
28 162 4.77848
29 162 5.09708
30 162 5.44825
31 162 5.79215
32 162 6.1312
33 162 6.47086
34 162 6.81079
35 162 7.1536
36 162 7.50259
37 162 7.8566
38 162 8.21301
39 162 8.5617
40 162 8.88259
41 162 9.16925
42 162 9.42738
43 162 9.66411
44 162 9.87892
45 162 10.0694
46 162 10.2479
47 162 10.4209
48 162 10.5851
49 162 10.7417
50 162 10.8937
51 162 11.04
52 162 11.1756
53 162 11.2946
54 162 11.39
55 162 11.4653
56 162 11.5263
57 162 11.5612
58 162 11.5631
59 162 11.5346
60 162 11.4687
61 162 11.3677
62 162 11.25
63 162 11.1244
64 162 10.9902
65 162 10.8478
66 162 10.6976
67 162 10.5404
68 162 10.3779
69 162 10.2141
70 162 10.0513
71 162 9.88755
72 162 9.72432
73 162 9.55944
74 162 9.38209
75 162 9.19083
76 162 8.99025
77 162 8.77656
78 162 8.54875
79 162 8.30993
80 162 8.06426
81 162 7.82154
82 162 7.58109
83 162 7.34039
84 162 7.10521
85 162 6.87707
86 162 6.65508
87 162 6.44593
88 162 6.26711
89 162 6.13132
90 162 6.03956
91 162 5.97295
92 162 5.89823
93 162 5.79548
94 162 5.65533
95 162 5.46335
96 162 5.2111
97 162 4.90544
98 162 4.5602
99 162 4.18227
100 162 3.77158
101 162 3.33707
102 162 2.89024
103 162 2.43537
104 162 1.9537
105 162 1.37743
106 162 0.580911
107 162 -0.608609
108 162 -3.33398
109 162 -9.79585
110 162 -17.1246
111 162 -20
112 162 -20
113 162 -20
114 162 -20
115 162 -20
116 162 -20
117 162 -20
118 162 -20
119 162 -20
0 163 -20
1 163 -20
2 163 -20
3 163 -20
4 163 -20
5 163 -20
6 163 -20
7 163 -20
8 163 -20
9 163 -20
10 163 -20
11 163 -17.752
12 163 -12.2331
13 163 -7.08647
14 163 -3.80642
15 163 -1.51596
16 163 -0.0677546
17 163 0.884911
18 163 1.56328
19 163 2.05997
20 163 2.43082
21 163 2.74017
22 163 3.0296
23 163 3.30954
24 163 3.57875
25 163 3.83515
26 163 4.0815
27 163 4.31812
28 163 4.56686
29 163 4.86434
30 163 5.19857
31 163 5.53565
32 163 5.86919
33 163 6.2064
34 163 6.55421
35 163 6.90903
36 163 7.26726
37 163 7.63352
38 163 8.00755
39 163 8.37536
40 163 8.71399
41 163 9.01386
42 163 9.2829
43 163 9.52864
44 163 9.7494
45 163 9.94224
46 163 10.117
47 163 10.287
48 163 10.4546
49 163 10.6186
50 163 10.7821
51 163 10.9431
52 163 11.0925
53 163 11.2239
54 163 11.3362
55 163 11.4333
56 163 11.5103
57 163 11.5526
58 163 11.5563
59 163 11.5224
60 163 11.446
61 163 11.3339
62 163 11.204
63 163 11.0634
64 163 10.9123
65 163 10.7528
66 163 10.5862
67 163 10.4128
68 163 10.2341
69 163 10.0527
70 163 9.86995
71 163 9.68527
72 163 9.50115
73 163 9.31691
74 163 9.12189
75 163 8.91571
76 163 8.70208
77 163 8.4753
78 163 8.23654
79 163 7.99113
80 163 7.74182
81 163 7.49846
82 163 7.26268
83 163 7.02658
84 163 6.79514
85 163 6.5729
86 163 6.35787
87 163 6.15983
88 163 5.99291
89 163 5.86839
90 163 5.79437
91 163 5.75664
92 163 5.7181
93 163 5.64403
94 163 5.52317
95 163 5.35233
96 163 5.12097
97 163 4.82719
98 163 4.48653
99 163 4.11073
100 163 3.69749
101 163 3.25312
102 163 2.78825
103 163 2.30314
104 163 1.77377
105 163 1.12044
106 163 0.107334
107 163 -1.5014
108 163 -6.15599
109 163 -13.9535
110 163 -19.032
111 163 -20
112 163 -20
113 163 -20
114 163 -20
115 163 -20
116 163 -20
117 163 -20
118 163 -20
119 163 -20
0 164 -20
1 164 -20
2 164 -20
3 164 -20
4 164 -20
5 164 -20
6 164 -20
7 164 -20
8 164 -20
9 164 -20
10 164 -20
11 164 -18.5308
12 164 -14.1964
13 164 -8.98355
14 164 -5.05993
15 164 -2.47479
16 164 -0.816573
17 164 0.288834
18 164 1.08042
19 164 1.66119
20 164 2.08219
21 164 2.40387
22 164 2.69566
23 164 2.98356
24 164 3.26426
25 164 3.53762
26 164 3.80518
27 164 4.06503
28 164 4.32461
29 164 4.61075
30 164 4.92793
31 164 5.25566
32 164 5.58607
33 164 5.92486
34 164 6.28087
35 164 6.64885
36 164 7.02063
37 164 7.40118
38 164 7.79131
39 164 8.17612
40 164 8.53119
41 164 8.84708
42 164 9.13269
43 164 9.39397
44 164 9.62922
45 164 9.83315
46 164 10.0091
47 164 10.1734
48 164 10.3394
49 164 10.51
50 164 10.6834
51 164 10.855
52 164 11.0173
53 164 11.1672
54 164 11.3045
55 164 11.4261
56 164 11.5196
57 164 11.5703
58 164 11.5751
59 164 11.5364
60 164 11.4517
61 164 11.3281
62 164 11.1846
63 164 11.0303
64 164 10.8643
65 164 10.6864
66 164 10.4985
67 164 10.3044
68 164 10.1068
69 164 9.90362
70 164 9.69347
71 164 9.48088
72 164 9.27158
73 164 9.06416
74 164 8.85071
75 164 8.62799
76 164 8.39507
77 164 8.15141
78 164 7.90091
79 164 7.65049
80 164 7.40386
81 164 7.1642
82 164 6.93273
83 164 6.70324
84 164 6.47762
85 164 6.2602
86 164 6.05171
87 164 5.86549
88 164 5.71375
89 164 5.60519
90 164 5.5454
91 164 5.5211
92 164 5.50402
93 164 5.45425
94 164 5.3525
95 164 5.20025
96 164 4.98918
97 164 4.71345
98 164 4.37864
99 164 3.99767
100 164 3.57778
101 164 3.12146
102 164 2.63344
103 164 2.11334
104 164 1.54284
105 164 0.845731
106 164 -0.179112
107 164 -1.92052
108 164 -7.63102
109 164 -16.1149
110 164 -20
111 164 -20
112 164 -20
113 164 -20
114 164 -20
115 164 -20
116 164 -20
117 164 -20
118 164 -20
119 164 -20
0 165 -20
1 165 -20
2 165 -20
3 165 -20
4 165 -20
5 165 -20
6 165 -20
7 165 -20
8 165 -20
9 165 -20
10 165 -20
11 165 -19.547
12 165 -17.1823
13 165 -12.3145
14 165 -7.10094
15 165 -3.62919
16 165 -1.64657
17 165 -0.348048
18 165 0.56175
19 165 1.22669
20 165 1.71058
21 165 2.05915
22 165 2.35502
23 165 2.64388
24 165 2.92931
25 165 3.21302
26 165 3.49458
27 165 3.77158
28 165 4.04324
29 165 4.32607
30 165 4.63127
31 165 4.95088
32 165 5.28269
33 165 5.6287
34 165 5.99154
35 165 6.36958
36 165 6.75838
37 165 7.15722
38 165 7.56433
39 165 7.96853
40 165 8.34515
41 165 8.68248
42 165 8.99031
43 165 9.27349
44 165 9.52773
45 165 9.74809
46 165 9.93497
47 165 10.1021
48 165 10.2685
49 165 10.4427
50 165 10.6231
51 165 10.8039
52 165 10.9796
53 165 11.1505
54 165 11.313
55 165 11.4534
56 165 11.5576
57 165 11.6156
58 165 11.6231
59 165 11.5801
60 165 11.4877
61 165 11.355
62 165 11.1999
63 165 11.0319
64 165 10.8488
65 165 10.6502
66 165 10.4393
67 165 10.22
68 165 9.99487
69 165 9.76074
70 165 9.51733
71 165 9.27242
72 165 9.03359
73 165 8.8009
74 165 8.56617
75 165 8.3216
76 165 8.0677
77 165 7.80861
78 165 7.54955
79 165 7.29827
80 165 7.05621
81 165 6.82023
82 165 6.59117
83 165 6.36989
84 165 6.1533
85 165 5.94014
86 165 5.73859
87 165 5.56412
88 165 5.42786
89 165 5.33578
90 165 5.28559
91 165 5.26462
92 165 5.2549
93 165 5.22216
94 165 5.14049
95 165 5.00556
96 165 4.81063
97 165 4.55082
98 165 4.22444
99 165 3.84083
100 165 3.41333
101 165 2.94227
102 165 2.4282
103 165 1.87288
104 165 1.26964
105 165 0.560134
106 165 -0.393784
107 165 -2.9624
108 165 -9.56721
109 165 -17.0815
110 165 -20
111 165 -20
112 165 -20
113 165 -20
114 165 -20
115 165 -20
116 165 -20
117 165 -20
118 165 -20
119 165 -20
0 166 -20
1 166 -20
2 166 -20
3 166 -20
4 166 -20
5 166 -20
6 166 -20
7 166 -20
8 166 -20
9 166 -20
10 166 -20
11 166 -20
12 166 -19.4088
13 166 -16.5104
14 166 -10.9982
15 166 -5.71708
16 166 -2.67298
17 166 -1.07717
18 166 -0.0144116
19 166 0.746788
20 166 1.30075
21 166 1.69071
22 166 1.99921
23 166 2.28955
24 166 2.57863
25 166 2.86905
26 166 3.1596
27 166 3.44633
28 166 3.72822
29 166 4.01609
30 166 4.31847
31 166 4.63722
32 166 4.97432
33 166 5.32669
34 166 5.69458
35 166 6.08099
36 166 6.48461
37 166 6.90108
38 166 7.32769
39 166 7.75594
40 166 8.16178
41 166 8.5299
42 166 8.86624
43 166 9.17466
44 166 9.4515
45 166 9.69463
46 166 9.90167
47 166 10.0788
48 166 10.2483
49 166 10.4262
50 166 10.6134
51 166 10.8062
52 166 10.999
53 166 11.1889
54 166 11.3652
55 166 11.5132
56 166 11.6259
57 166 11.694
58 166 11.7072
59 166 11.6622
60 166 11.5634
61 166 11.4222
62 166 11.255
63 166 11.0699
64 166 10.8667
65 166 10.6471
66 166 10.4117
67 166 10.161
68 166 9.89917
69 166 9.62694
70 166 9.34644
71 166 9.06656
72 166 8.79299
73 166 8.52768
74 166 8.26568
75 166 7.99682
76 166 7.72452
77 166 7.45662
78 166 7.1954
79 166 6.94575
80 166 6.70581
81 166 6.47012
82 166 6.2428
83 166 6.02748
84 166 5.81739
85 166 5.61029
86 166 5.41945
87 166 5.25969
88 166 5.13741
89 166 5.05569
90 166 5.00897
91 166 4.98571
92 166 4.97605
93 166 4.95461
94 166 4.88979
95 166 4.76991
96 166 4.58864
97 166 4.33802
98 166 4.01882
99 166 3.63618
100 166 3.19889
101 166 2.71058
102 166 2.16888
103 166 1.57382
104 166 0.933292
105 166 0.195403
106 166 -1.0293
107 166 -5.68988
108 166 -13.7847
109 166 -19.0178
110 166 -20
111 166 -20
112 166 -20
113 166 -20
114 166 -20
115 166 -20
116 166 -20
117 166 -20
118 166 -20
119 166 -20
0 167 -20
1 167 -20
2 167 -20
3 167 -20
4 167 -20
5 167 -20
6 167 -20
7 167 -20
8 167 -20
9 167 -20
10 167 -20
11 167 -20
12 167 -20
13 167 -19.2778
14 167 -15.3609
15 167 -8.88249
16 167 -4.26189
17 167 -2.09367
18 167 -0.734093
19 167 0.176884
20 167 0.823494
21 167 1.27187
22 167 1.60936
23 167 1.90986
24 167 2.20626
25 167 2.50574
26 167 2.80465
27 167 3.09873
28 167 3.39506
29 167 3.70018
30 167 4.01112
31 167 4.33386
32 167 4.67555
33 167 5.03316
34 167 5.40742
35 167 5.80213
36 167 6.21577
37 167 6.64614
38 167 7.09325
39 167 7.54727
40 167 7.98464
41 167 8.38828
42 167 8.7563
43 167 9.09231
44 167 9.39743
45 167 9.66937
46 167 9.90284
47 167 10.098
48 167 10.2765
49 167 10.4617
50 167 10.6588
51 167 10.8655
52 167 11.0755
53 167 11.2792
54 167 11.4601
55 167 11.6095
56 167 11.7295
57 167 11.8084
58 167 11.8285
59 167 11.7851
60 167 11.6826
61 167 11.5313
62 167 11.3482
63 167 11.1439
64 167 10.9203
65 167 10.6772
66 167 10.4112
67 167 10.1232
68 167 9.8205
69 167 9.50643
70 167 9.18491
71 167 8.86648
72 167 8.55198
73 167 8.24328
74 167 7.94795
75 167 7.65729
76 167 7.37066
77 167 7.09751
78 167 6.83531
79 167 6.58457
80 167 6.34372
81 167 6.10987
82 167 5.88828
83 167 5.67668
84 167 5.47004
85 167 5.27126
86 167 5.09236
87 167 4.9482
88 167 4.83892
89 167 4.76108
90 167 4.71192
91 167 4.68414
92 167 4.67288
93 167 4.65849
94 167 4.60537
95 167 4.49565
96 167 4.32307
97 167 4.07835
98 167 3.76349
99 167 3.37702
100 167 2.9235
101 167 2.41518
102 167 1.84595
103 167 1.20554
104 167 0.501307
105 167 -0.394042
106 167 -2.88987
107 167 -9.45261
108 167 -17.0247
109 167 -20
110 167 -20
111 167 -20
112 167 -20
113 167 -20
114 167 -20
115 167 -20
116 167 -20
117 167 -20
118 167 -20
119 167 -20
0 168 -20
1 168 -20
2 168 -20
3 168 -20
4 168 -20
5 168 -20
6 168 -20
7 168 -20
8 168 -20
9 168 -20
10 168 -20
11 168 -20
12 168 -20
13 168 -20
14 168 -18.0037
15 168 -12.62
16 168 -7.06699
17 168 -3.69039
18 168 -1.76146
19 168 -0.567413
20 168 0.229257
21 168 0.771744
22 168 1.16729
23 168 1.49418
24 168 1.80308
25 168 2.1159
26 168 2.42747
27 168 2.73674
28 168 3.0537
29 168 3.37977
30 168 3.70869
31 168 4.04169
32 168 4.38697
33 168 4.75125
34 168 5.13479
35 168 5.53841
36 168 5.96354
37 168 6.40961
38 168 6.87613
39 168 7.35521
40 168 7.82497
41 168 8.26397
42 168 8.66404
43 168 9.02905
44 168 9.36433
45 168 9.66596
46 168 9.9289
47 168 10.1552
48 168 10.3564
49 168 10.5532
50 168 10.7625
51 168 10.9841
52 168 11.2066
53 168 11.4176
54 168 11.6011
55 168 11.7518
56 168 11.8761
57 168 11.9625
58 168 11.9909
59 168 11.9519
60 168 11.8457
61 168 11.6844
62 168 11.4866
63 168 11.2629
64 168 11.0151
65 168 10.7404
66 168 10.4361
67 168 10.1061
68 168 9.75917
69 168 9.40072
70 168 9.03416
71 168 8.66797
72 168 8.30427
73 168 7.94456
74 168 7.60713
75 168 7.29494
76 168 6.99996
77 168 6.72092
78 168 6.45466
79 168 6.2026
80 168 5.96309
81 168 5.735
82 168 5.52024
83 168 5.31431
84 168 5.116
85 168 4.9288
86 168 4.76172
87 168 4.62881
88 168 4.52856
89 168 4.45157
90 168 4.39653
91 168 4.36369
92 168 4.34936
93 168 4.33575
94 168 4.29071
95 168 4.18939
96 168 4.02064
97 168 3.77994
98 168 3.46762
99 168 3.07716
100 168 2.6073
101 168 2.07056
102 168 1.46572
103 168 0.78993
104 168 0.0455972
105 168 -1.07337
106 168 -5.63319
107 168 -13.7519
108 168 -19.02
109 168 -20
110 168 -20
111 168 -20
112 168 -20
113 168 -20
114 168 -20
115 168 -20
116 168 -20
117 168 -20
118 168 -20
119 168 -20
0 169 -20
1 169 -20
2 169 -20
3 169 -20
4 169 -20
5 169 -20
6 169 -20
7 169 -20
8 169 -20
9 169 -20
10 169 -20
11 169 -20
12 169 -20
13 169 -20
14 169 -19.4129
15 169 -16.6698
16 169 -11.5058
17 169 -6.39331
18 169 -3.23619
19 169 -1.54894
20 169 -0.513186
21 169 0.165195
22 169 0.655417
23 169 1.03725
24 169 1.37117
25 169 1.70352
26 169 2.03496
27 169 2.36654
28 169 2.70569
29 169 3.05077
30 169 3.4007
31 169 3.75447
32 169 4.11223
33 169 4.48313
34 169 4.8737
35 169 5.28649
36 169 5.72631
37 169 6.19082
38 169 6.67576
39 169 7.17978
40 169 7.68375
41 169 8.15928
42 169 8.59443
43 169 8.99217
44 169 9.35887
45 169 9.69164
46 169 9.98718
47 169 10.2509
48 169 10.4851
49 169 10.7007
50 169 10.9234
51 169 11.1599
52 169 11.3928
53 169 11.6086
54 169 11.7969
55 169 11.9524
56 169 12.0807
57 169 12.1724
58 169 12.2072
59 169 12.1716
60 169 12.0618
61 169 11.8923
62 169 11.6815
63 169 11.4356
64 169 11.1557
65 169 10.841
66 169 10.4936
67 169 10.1205
68 169 9.72502
69 169 9.31468
70 169 8.89484
71 169 8.46729
72 169 8.04146
73 169 7.62794
74 169 7.24611
75 169 6.90857
76 169 6.6049
77 169 6.32056
78 169 6.05187
79 169 5.80139
80 169 5.5682
81 169 5.34914
82 169 5.14002
83 169 4.94107
84 169 4.75372
85 169 4.5795
86 169 4.42595
87 169 4.30112
88 169 4.20381
89 169 4.12568
90 169 4.06512
91 169 4.02693
92 169 4.00642
93 169 3.98806
94 169 3.94927
95 169 3.85944
96 169 3.69533
97 169 3.45393
98 169 3.14096
99 169 2.74949
100 169 2.26682
101 169 1.69786
102 169 1.0463
103 169 0.322452
104 169 -0.502577
105 169 -1.84632
106 169 -7.37372
107 169 -16.0031
108 169 -20
109 169 -20
110 169 -20
111 169 -20
112 169 -20
113 169 -20
114 169 -20
115 169 -20
116 169 -20
117 169 -20
118 169 -20
119 169 -20
0 170 -20
1 170 -20
2 170 -20
3 170 -20
4 170 -20
5 170 -20
6 170 -20
7 170 -20
8 170 -20
9 170 -20
10 170 -20
11 170 -20
12 170 -20
13 170 -20
14 170 -20
15 170 -19.3506
16 170 -16.3474
17 170 -10.9046
18 170 -5.84076
19 170 -2.93681
20 170 -1.4706
21 170 -0.575107
22 170 0.0599439
23 170 0.539433
24 170 0.916978
25 170 1.27048
26 170 1.6287
27 170 1.98882
28 170 2.35194
29 170 2.7178
30 170 3.08884
31 170 3.46734
32 170 3.84757
33 170 4.23197
34 170 4.63109
35 170 5.05182
36 170 5.50212
37 170 5.98103
38 170 6.48461
39 170 7.01412
40 170 7.55001
41 170 8.06008
42 170 8.53218
43 170 8.96942
44 170 9.37484
45 170 9.7451
46 170 10.0786
47 170 10.3806
48 170 10.6521
49 170 10.8987
50 170 11.1431
51 170 11.3972
52 170 11.644
53 170 11.8679
54 170 12.0626
55 170 12.2236
56 170 12.355
57 170 12.4482
58 170 12.4839
59 170 12.45
60 170 12.3388
61 170 12.1601
62 170 11.9321
63 170 11.6602
64 170 11.3455
65 170 10.9898
66 170 10.5982
67 170 10.1757
68 170 9.72057
69 170 9.243
70 170 8.75402
71 170 8.25517
72 170 7.76025
73 170 7.29267
74 170 6.872
75 170 6.50444
76 170 6.18183
77 170 5.89162
78 170 5.62421
79 170 5.37858
80 170 5.15383
81 170 4.94353
82 170 4.74296
83 170 4.55244
84 170 4.37444
85 170 4.21403
86 170 4.07392
87 170 3.95482
88 170 3.86004
89 170 3.78433
90 170 3.72225
91 170 3.67822
92 170 3.64871
93 170 3.62419
94 170 3.58788
95 170 3.50667
96 170 3.34891
97 170 3.10539
98 170 2.78675
99 170 2.38885
100 170 1.89366
101 170 1.2982
102 170 0.60778
103 170 -0.177668
104 170 -1.23152
105 170 -3.79289
106 170 -10.0421
107 170 -17.1834
108 170 -20
109 170 -20
110 170 -20
111 170 -20
112 170 -20
113 170 -20
114 170 -20
115 170 -20
116 170 -20
117 170 -20
118 170 -20
119 170 -20
0 171 -20
1 171 -20
2 171 -20
3 171 -20
4 171 -20
5 171 -20
6 171 -20
7 171 -20
8 171 -20
9 171 -20
10 171 -20
11 171 -20
12 171 -20
13 171 -20
14 171 -20
15 171 -20
16 171 -19.2768
17 171 -16.0941
18 171 -10.5795
19 171 -5.65685
20 171 -2.9392
21 171 -1.56892
22 171 -0.667872
23 171 -0.019447
24 171 0.443749
25 171 0.827838
26 171 1.21176
27 171 1.60203
28 171 1.9925
29 171 2.38332
30 171 2.77708
31 171 3.17693
32 171 3.58004
33 171 3.98722
34 171 4.40198
35 171 4.83206
36 171 5.29171
37 171 5.78319
38 171 6.30417
39 171 6.85608
40 171 7.41881
41 171 7.95966
42 171 8.46664
43 171 8.94427
44 171 9.39314
45 171 9.80789
46 171 10.1882
47 171 10.5365
48 171 10.8538
49 171 11.1445
50 171 11.4228
51 171 11.7007
52 171 11.9665
53 171 12.2055
54 171 12.4093
55 171 12.5736
56 171 12.7049
57 171 12.7964
58 171 12.8299
59 171 12.7945
60 171 12.6788
61 171 12.4878
62 171 12.241
63 171 11.9418
64 171 11.5893
65 171 11.1888
66 171 10.7446
67 171 10.2577
68 171 9.73024
69 171 9.1724
70 171 8.59575
71 171 8.01733
72 171 7.45783
73 171 6.93989
74 171 6.4828
75 171 6.08245
76 171 5.73131
77 171 5.42825
78 171 5.16
79 171 4.91856
80 171 4.70096
81 171 4.49862
82 171 4.31048
83 171 4.1346
84 171 3.96869
85 171 3.81997
86 171 3.69117
87 171 3.57996
88 171 3.49124
89 171 3.4229
90 171 3.36605
91 171 3.3209
92 171 3.28494
93 171 3.25217
94 171 3.20983
95 171 3.12938
96 171 2.97782
97 171 2.73894
98 171 2.41492
99 171 2.00081
100 171 1.48785
101 171 0.871635
102 171 0.166756
103 171 -0.650501
104 171 -1.90108
105 171 -6.40926
106 171 -14.1644
107 171 -19.1074
108 171 -20
109 171 -20
110 171 -20
111 171 -20
112 171 -20
113 171 -20
114 171 -20
115 171 -20
116 171 -20
117 171 -20
118 171 -20
119 171 -20
0 172 -20
1 172 -20
2 172 -20
3 172 -20
4 172 -20
5 172 -20
6 172 -20
7 172 -20
8 172 -20
9 172 -20
10 172 -20
11 172 -20
12 172 -20
13 172 -20
14 172 -20
15 172 -20
16 172 -20
17 172 -19.2481
18 172 -15.5606
19 172 -9.60599
20 172 -5.24619
21 172 -3.06534
22 172 -1.66113
23 172 -0.717293
24 172 -0.0805643
25 172 0.3865
26 172 0.801317
27 172 1.215
28 172 1.6345
29 172 2.05199
30 172 2.46632
31 172 2.88536
32 172 3.31082
33 172 3.73995
34 172 4.17376
35 172 4.62006
36 172 5.09128
37 172 5.5934
38 172 6.12887
39 172 6.6996
40 172 7.28629
41 172 7.85743
42 172 8.39971
43 172 8.91568
44 172 9.40628
45 172 9.86883
46 172 10.3017
47 172 10.704
48 172 11.0741
49 172 11.4138
50 172 11.7376
51 172 12.0545
52 172 12.3519
53 172 12.6174
54 172 12.8413
55 172 13.0157
56 172 13.1475
57 172 13.2343
58 172 13.2615
59 172 13.2189
60 172 13.0943
61 172 12.8906
62 172 12.6232
63 172 12.2903
64 172 11.89
65 172 11.4311
66 172 10.9181
67 172 10.3526
68 172 9.7439
69 172 9.09827
70 172 8.42653
71 172 7.76713
72 172 7.14865
73 172 6.58197
74 172 6.08262
75 172 5.64534
76 172 5.26232
77 172 4.93855
78 172 4.66114
79 172 4.41631
80 172 4.20205
81 172 4.01018
82 172 3.8354
83 172 3.67611
84 172 3.52761
85 172 3.39155
86 172 3.27471
87 172 3.17772
88 172 3.09857
89 172 3.03632
90 172 2.9875
91 172 2.94881
92 172 2.91368
93 172 2.87453
94 172 2.82448
95 172 2.74249
96 172 2.59401
97 172 2.35791
98 172 2.02675
99 172 1.59385
100 172 1.06062
101 172 0.429639
102 172 -0.285084
103 172 -1.19986
104 172 -3.53157
105 172 -9.71462
106 172 -17.0531
107 172 -20
108 172 -20
109 172 -20
110 172 -20
111 172 -20
112 172 -20
113 172 -20
114 172 -20
115 172 -20
116 172 -20
117 172 -20
118 172 -20
119 172 -20
0 173 -20
1 173 -20
2 173 -20
3 173 -20
4 173 -20
5 173 -20
6 173 -20
7 173 -20
8 173 -20
9 173 -20
10 173 -20
11 173 -20
12 173 -20
13 173 -20
14 173 -20
15 173 -20
16 173 -20
17 173 -20
18 173 -18.2821
19 173 -13.5949
20 173 -8.60301
21 173 -5.27953
22 173 -3.11048
23 173 -1.67927
24 173 -0.738551
25 173 -0.0945374
26 173 0.394482
27 173 0.839119
28 173 1.28508
29 173 1.7274
30 173 2.16101
31 173 2.59808
32 173 3.04306
33 173 3.48973
34 173 3.94334
35 173 4.4088
36 173 4.89131
37 173 5.40131
38 173 5.94742
39 173 6.53465
40 173 7.14531
41 173 7.74755
42 173 8.32692
43 173 8.88254
44 173 9.41491
45 173 9.92463
46 173 10.4077
47 173 10.8603
48 173 11.279
49 173 11.6675
50 173 12.0467
51 173 12.4242
52 173 12.7751
53 173 13.0819
54 173 13.3401
55 173 13.5389
56 173 13.6789
57 173 13.7639
58 173 13.7855
59 173 13.7342
60 173 13.5983
61 173 13.378
62 173 13.081
63 173 12.7039
64 173 12.2476
65 173 11.7201
66 173 11.1238
67 173 10.465
68 173 9.76029
69 173 9.01836
70 173 8.25729
71 173 7.52479
72 173 6.8493
73 173 6.23299
74 173 5.68511
75 173 5.20363
76 173 4.78545
77 173 4.43476
78 173 4.13754
79 173 3.88224
80 173 3.66786
81 173 3.48601
82 173 3.32474
83 173 3.17953
84 173 3.04913
85 173 2.93094
86 173 2.82987
87 173 2.75042
88 173 2.68786
89 173 2.63664
90 173 2.59625
91 173 2.56651
92 173 2.53901
93 173 2.50423
94 173 2.45616
95 173 2.37548
96 173 2.22467
97 173 1.97578
98 173 1.62318
99 173 1.1708
100 173 0.623437
101 173 -0.0163939
102 173 -0.774898
103 173 -1.9066
104 173 -6.23983
105 173 -13.9605
106 173 -19.0319
107 173 -20
108 173 -20
109 173 -20
110 173 -20
111 173 -20
112 173 -20
113 173 -20
114 173 -20
115 173 -20
116 173 -20
117 173 -20
118 173 -20
119 173 -20
0 174 -20
1 174 -20
2 174 -20
3 174 -20
4 174 -20
5 174 -20
6 174 -20
7 174 -20
8 174 -20
9 174 -20
10 174 -20
11 174 -20
12 174 -20
13 174 -20
14 174 -20
15 174 -20
16 174 -20
17 174 -20
18 174 -19.5086
19 174 -17.2575
20 174 -13.0145
21 174 -8.54338
22 174 -5.25913
23 174 -3.10255
24 174 -1.67754
25 174 -0.730575
26 174 -0.0698384
27 174 0.449588
28 174 0.926106
29 174 1.3963
30 174 1.85739
31 174 2.31267
32 174 2.77105
33 174 3.23436
34 174 3.7076
35 174 4.18976
36 174 4.68562
37 174 5.20672
38 174 5.76295
39 174 6.36457
40 174 6.99762
41 174 7.62883
42 174 8.24331
43 174 8.84052
44 174 9.41757
45 174 9.97113
46 174 10.4982
47 174 10.9948
48 174 11.457
49 174 11.8957
50 174 12.3367
51 174 12.7833
52 174 13.201
53 174 13.5631
54 174 13.8658
55 174 14.0995
56 174 14.2608
57 174 14.3566
58 174 14.3842
59 174 14.3311
60 174 14.184
61 174 13.9404
62 174 13.6056
63 174 13.18
64 174 12.6643
65 174 12.0603
66 174 11.3683
67 174 10.6023
68 174 9.78481
69 174 8.93476
70 174 8.08812
71 174 7.28797
72 174 6.55304
73 174 5.88544
74 174 5.28839
75 174 4.76077
76 174 4.30354
77 174 3.91727
78 174 3.59127
79 174 3.32044
80 174 3.10121
81 174 2.92445
82 174 2.7767
83 174 2.64795
84 174 2.53573
85 174 2.43824
86 174 2.35784
87 174 2.29773
88 174 2.25755
89 174 2.22958
90 174 2.20663
91 174 2.18966
92 174 2.17356
93 174 2.14951
94 174 2.10961
95 174 2.03016
96 174 1.86854
97 174 1.59409
98 174 1.21122
99 174 0.737577
100 174 0.183953
101 174 -0.482323
102 174 -1.39212
103 174 -3.6745
104 174 -9.77159
105 174 -17.0628
106 174 -20
107 174 -20
108 174 -20
109 174 -20
110 174 -20
111 174 -20
112 174 -20
113 174 -20
114 174 -20
115 174 -20
116 174 -20
117 174 -20
118 174 -20
119 174 -20
0 175 -20
1 175 -20
2 175 -20
3 175 -20
4 175 -20
5 175 -20
6 175 -20
7 175 -20
8 175 -20
9 175 -20
10 175 -20
11 175 -20
12 175 -20
13 175 -20
14 175 -20
15 175 -20
16 175 -20
17 175 -20
18 175 -20
19 175 -19.4965
20 175 -17.2216
21 175 -13.4817
22 175 -9.51198
23 175 -5.6928
24 175 -3.03706
25 175 -1.64828
26 175 -0.701795
27 175 -0.0139714
28 175 0.531192
29 175 1.03433
30 175 1.52821
31 175 2.01085
32 175 2.4888
33 175 2.97207
34 175 3.46472
35 175 3.96456
36 175 4.47606
37 175 5.0088
38 175 5.5765
39 175 6.1907
40 175 6.84046
41 175 7.4988
42 175 8.14813
43 175 8.78497
44 175 9.40468
45 175 9.99997
46 175 10.5698
47 175 11.1116
48 175 11.622
49 175 12.1162
50 175 12.6197
51 175 13.1313
52 175 13.6164
53 175 14.0418
54 175 14.3939
55 175 14.6664
56 175 14.858
57 175 14.9757
58 175 15.0183
59 175 14.9699
60 175 14.8186
61 175 14.5602
62 175 14.1952
63 175 13.727
64 175 13.1508
65 175 12.4619
66 175 11.6638
67 175 10.7769
68 175 9.83314
69 175 8.86942
70 175 7.93601
71 175 7.06736
72 175 6.26918
73 175 5.54293
74 175 4.89259
75 175 4.31851
76 175 3.81829
77 175 3.38938
78 175 3.02911
79 175 2.73603
80 175 2.50338
81 175 2.32461
82 175 2.18809
83 175 2.07737
84 175 1.98547
85 175 1.91134
86 175 1.85598
87 175 1.82174
88 175 1.80926
89 175 1.81178
90 175 1.81746
91 175 1.8192
92 175 1.81266
93 175 1.79431
94 175 1.75811
95 175 1.67408
96 175 1.49349
97 175 1.18877
98 175 0.773422
99 175 0.280687
100 175 -0.258318
101 175 -0.890328
102 175 -1.9693
103 175 -6.3155
104 175 -14.0083
105 175 -19.0397
106 175 -20
107 175 -20
108 175 -20
109 175 -20
110 175 -20
111 175 -20
112 175 -20
113 175 -20
114 175 -20
115 175 -20
116 175 -20
117 175 -20
118 175 -20
119 175 -20
0 176 -20
1 176 -20
2 176 -20
3 176 -20
4 176 -20
5 176 -20
6 176 -20
7 176 -20
8 176 -20
9 176 -20
10 176 -20
11 176 -20
12 176 -20
13 176 -20
14 176 -20
15 176 -20
16 176 -20
17 176 -20
18 176 -20
19 176 -20
20 176 -19.4939
21 176 -18.2299
22 176 -15.4593
23 176 -10.407
24 176 -5.59304
25 176 -2.9975
26 176 -1.61266
27 176 -0.6435
28 176 0.0678383
29 176 0.638171
30 176 1.15834
31 176 1.66927
32 176 2.17785
33 176 2.68752
34 176 3.20395
35 176 3.72747
36 176 4.25915
37 176 4.80638
38 176 5.38415
39 176 6.00484
40 176 6.6677
41 176 7.35254
42 176 8.03323
43 176 8.7034
44 176 9.36299
45 176 10.005
46 176 10.6248
47 176 11.2193
48 176 11.7897
49 176 12.3474
50 176 12.9106
51 176 13.4811
52 176 14.0308
53 176 14.5199
54 176 14.9216
55 176 15.2326
56 176 15.459
57 176 15.6013
58 176 15.6529
59 176 15.6034
60 176 15.4511
61 176 15.1979
62 176 14.832
63 176 14.3386
64 176 13.71
65 176 12.9408
66 176 12.0293
67 176 11.0017
68 176 9.92254
69 176 8.85199
70 176 7.83064
71 176 6.88413
72 176 6.01488
73 176 5.21891
74 176 4.5051
75 176 3.87849
76 176 3.33043
77 176 2.85723
78 176 2.46213
79 176 2.14196
80 176 1.88764
81 176 1.69736
82 176 1.56323
83 176 1.46746
84 176 1.39832
85 176 1.35096
86 176 1.32774
87 176 1.32996
88 176 1.34938
89 176 1.37853
90 176 1.40859
91 176 1.42715
92 176 1.4276
93 176 1.40782
94 176 1.36341
95 176 1.26323
96 176 1.05867
97 176 0.721278
98 176 0.264271
99 176 -0.247448
100 176 -0.769065
101 176 -1.39038
102 176 -3.49733
103 176 -9.70037
104 176 -17.0772
105 176 -20
106 176 -20
107 176 -20
108 176 -20
109 176 -20
110 176 -20
111 176 -20
112 176 -20
113 176 -20
114 176 -20
115 176 -20
116 176 -20
117 176 -20
118 176 -20
119 176 -20
0 177 -20
1 177 -20
2 177 -20
3 177 -20
4 177 -20
5 177 -20
6 177 -20
7 177 -20
8 177 -20
9 177 -20
10 177 -20
11 177 -20
12 177 -20
13 177 -20
14 177 -20
15 177 -20
16 177 -20
17 177 -20
18 177 -20
19 177 -20
20 177 -20
21 177 -20
22 177 -19.2192
23 177 -15.9295
24 177 -10.4069
25 177 -5.60698
26 177 -2.98628
27 177 -1.57598
28 177 -0.575129
29 177 0.165247
30 177 0.744653
31 177 1.27657
32 177 1.81495
33 177 2.35719
34 177 2.90318
35 177 3.45368
36 177 4.01077
37 177 4.58167
38 177 5.17258
39 177 5.79651
40 177 6.46683
41 177 7.16959
42 177 7.87717
43 177 8.58362
44 177 9.29087
45 177 9.98749
46 177 10.665
47 177 11.3219
48 177 11.9618
49 177 12.5903
50 177 13.2158
51 177 13.8433
52 177 14.4511
53 177 14.9998
54 177 15.4543
55 177 15.8068
56 177 16.0656
57 177 16.2221
58 177 16.2673
59 177 16.2056
60 177 16.0496
61 177 15.8112
62 177 15.4678
63 177 14.9781
64 177 14.3234
65 177 13.4898
66 177 12.4619
67 177 11.2853
68 177 10.0716
69 177 8.89768
70 177 7.78147
71 177 6.74051
72 177 5.78528
73 177 4.90898
74 177 4.12184
75 177 3.43345
76 177 2.83281
77 177 2.3146
78 177 1.88349
79 177 1.53549
80 177 1.25856
81 177 1.04968
82 177 0.907093
83 177 0.820531
84 177 0.774043
85 177 0.756766
86 177 0.768556
87 177 0.804959
88 177 0.851164
89 177 0.897493
90 177 0.938148
91 177 0.964426
92 177 0.969145
93 177 0.944427
94 177 0.881623
95 177 0.752038
96 177 0.511581
97 177 0.12518
98 177 -0.405698
99 177 -0.996778
100 177 -1.61996
101 177 -2.42044
102 177 -6.34882
103 177 -13.9456
104 177 -19.0425
105 177 -20
106 177 -20
107 177 -20
108 177 -20
109 177 -20
110 177 -20
111 177 -20
112 177 -20
113 177 -20
114 177 -20
115 177 -20
116 177 -20
117 177 -20
118 177 -20
119 177 -20
0 178 -20
1 178 -20
2 178 -20
3 178 -20
4 178 -20
5 178 -20
6 178 -20
7 178 -20
8 178 -20
9 178 -20
10 178 -20
11 178 -20
12 178 -20
13 178 -20
14 178 -20
15 178 -20
16 178 -20
17 178 -20
18 178 -20
19 178 -20
20 178 -20
21 178 -20
22 178 -20
23 178 -19.2348
24 178 -15.9678
25 178 -10.4603
26 178 -5.66701
27 178 -3.01174
28 178 -1.54118
29 178 -0.507968
30 178 0.234591
31 178 0.825391
32 178 1.39173
33 178 1.96892
34 178 2.54764
35 178 3.12492
36 178 3.7075
37 178 4.30367
38 178 4.91198
39 178 5.5395
40 178 6.20536
41 178 6.91809
42 178 7.66113
43 178 8.41953
44 178 9.18936
45 178 9.95103
46 178 10.6954
47 178 11.4255
48 178 12.1423
49 178 12.8477
50 178 13.5419
51 178 14.2272
52 178 14.8884
53 178 15.4948
54 178 16.006
55 178 16.3952
56 178 16.6655
57 178 16.8156
58 178 16.8454
59 178 16.7684
60 178 16.6053
61 178 16.3742
62 178 16.0526
63 178 15.5923
64 178 14.9562
65 178 14.0936
66 178 12.9659
67 178 11.6459
68 178 10.2929
69 178 9.00125
70 178 7.77729
71 178 6.62813
72 178 5.57057
73 178 4.6015
74 178 3.73084
75 178 2.97165
76 178 2.31374
77 178 1.74764
78 178 1.27541
79 178 0.898837
80 178 0.602546
81 178 0.374996
82 178 0.221929
83 178 0.137896
84 178 0.104495
85 178 0.109113
86 178 0.141456
87 178 0.194487
88 178 0.258654
89 178 0.319825
90 178 0.370208
91 178 0.402401
92 178 0.403284
93 178 0.361084
94 178 0.263669
95 178 0.078818
96 178 -0.225206
97 178 -0.674873
98 178 -1.37802
99 178 -2.36164
100 178 -3.19116
101 178 -4.68807
102 178 -10.0248
103 178 -17.074
104 178 -20
105 178 -20
106 178 -20
107 178 -20
108 178 -20
109 178 -20
110 178 -20
111 178 -20
112 178 -20
113 178 -20
114 178 -20
115 178 -20
116 178 -20
117 178 -20
118 178 -20
119 178 -20
0 179 -20
1 179 -20
2 179 -20
3 179 -20
4 179 -20
5 179 -20
6 179 -20
7 179 -20
8 179 -20
9 179 -20
10 179 -20
11 179 -20
12 179 -20
13 179 -20
14 179 -20
15 179 -20
16 179 -20
17 179 -20
18 179 -20
19 179 -20
20 179 -20
21 179 -20
22 179 -20
23 179 -20
24 179 -19.2374
25 179 -16.0067
26 179 -10.5129
27 179 -5.62639
28 179 -2.89782
29 179 -1.4538
30 179 -0.460161
31 179 0.280164
32 179 0.908558
33 179 1.51852
34 179 2.12999
35 179 2.73927
36 179 3.34853
37 179 3.96692
38 179 4.59095
39 179 5.21897
40 179 5.87431
41 179 6.59958
42 179 7.39218
43 179 8.2169
44 179 9.05958
45 179 9.90227
46 179 10.7327
47 179 11.5494
48 179 12.3521
49 179 13.138
50 179 13.9011
51 179 14.6441
52 179 15.3596
53 179 16.0192
54 179 16.5712
55 179 16.9739
56 179 17.2311
57 179 17.3625
58 179 17.3774
59 179 17.2862
60 179 17.1113
61 179 16.8732
62 179 16.5599
63 179 16.1334
64 179 15.547
65 179 14.719
66 179 13.5533
67 179 12.1033
68 179 10.5883
69 179 9.15151
70 179 7.80001
71 179 6.52615
72 179 5.34528
73 179 4.26659
74 179 3.30134
75 179 2.46171
76 179 1.74127
77 179 1.12818
78 179 0.616066
79 179 0.208407
80 179 -0.107785
81 179 -0.348747
82 179 -0.50717
83 179 -0.590763
84 179 -0.622824
85 179 -0.613426
86 179 -0.575544
87 179 -0.517126
88 179 -0.440456
89 179 -0.360683
90 179 -0.288971
91 179 -0.244993
92 179 -0.266257
93 179 -0.369598
94 179 -0.55969
95 179 -0.873781
96 179 -1.30165
97 179 -1.81869
98 179 -2.56178
99 179 -3.79358
100 179 -5.65666
101 179 -9.40313
102 179 -15.0724
103 179 -19.0424
104 179 -20
105 179 -20
106 179 -20
107 179 -20
108 179 -20
109 179 -20
110 179 -20
111 179 -20
112 179 -20
113 179 -20
114 179 -20
115 179 -20
116 179 -20
117 179 -20
118 179 -20
119 179 -20
0 180 -20
1 180 -20
2 180 -20
3 180 -20
4 180 -20
5 180 -20
6 180 -20
7 180 -20
8 180 -20
9 180 -20
10 180 -20
11 180 -20
12 180 -20
13 180 -20
14 180 -20
15 180 -20
16 180 -20
17 180 -20
18 180 -20
19 180 -20
20 180 -20
21 180 -20
22 180 -20
23 180 -20
24 180 -20
25 180 -19.2509
26 180 -15.974
27 180 -10.3962
28 180 -5.54049
29 180 -2.8685
30 180 -1.43887
31 180 -0.449648
32 180 0.330897
33 180 1.00525
34 180 1.64932
35 180 2.29468
36 180 2.93442
37 180 3.57336
38 180 4.21135
39 180 4.84321
40 180 5.49501
41 180 6.23679
42 180 7.08521
43 180 7.989
44 180 8.9187
45 180 9.85952
46 180 10.7916
47 180 11.7044
48 180 12.5997
49 180 13.4688
50 180 14.3024
51 180 15.1061
52 180 15.8737
53 180 16.565
54 180 17.1228
55 180 17.5173
56 180 17.7546
57 180 17.8621
58 180 17.857
59 180 17.7489
60 180 17.5592
61 180 17.3063
62 180 16.9882
63 180 16.5811
64 180 16.0444
65 180 15.2959
66 180 14.1782
67 180 12.6558
68 180 10.9738
69 180 9.35798
70 180 7.84063
71 180 6.40588
72 180 5.07122
73 180 3.86339
74 180 2.79376
75 180 1.86461
76 180 1.07273
77 180 0.407862
78 180 -0.140914
79 180 -0.571671
80 180 -0.898598
81 180 -1.14043
82 180 -1.29565
83 180 -1.37972
84 180 -1.41999
85 180 -1.42064
86 180 -1.38623
87 180 -1.32231
88 180 -1.22623
89 180 -1.11247
90 180 -1.00622
91 180 -0.960873
92 180 -1.05195
93 180 -1.31731
94 180 -1.73938
95 180 -2.41333
96 180 -3.22569
97 180 -3.83458
98 180 -5.06162
99 180 -7.38578
100 180 -10.7521
101 180 -15.3906
102 180 -18.9927
103 180 -20
104 180 -20
105 180 -20
106 180 -20
107 180 -20
108 180 -20
109 180 -20
110 180 -20
111 180 -20
112 180 -20
113 180 -20
114 180 -20
115 180 -20
116 180 -20
117 180 -20
118 180 -20
119 180 -20
0 181 -20
1 181 -20
2 181 -20
3 181 -20
4 181 -20
5 181 -20
6 181 -20
7 181 -20
8 181 -20
9 181 -20
10 181 -20
11 181 -20
12 181 -20
13 181 -20
14 181 -20
15 181 -20
16 181 -20
17 181 -20
18 181 -20
19 181 -20
20 181 -20
21 181 -20
22 181 -20
23 181 -20
24 181 -20
25 181 -20
26 181 -19.2169
27 181 -15.9813
28 181 -10.5316
29 181 -5.65734
30 181 -2.91401
31 181 -1.47646
32 181 -0.446955
33 181 0.385881
34 181 1.10369
35 181 1.7856
36 181 2.45941
37 181 3.12297
38 181 3.77555
39 181 4.41748
40 181 5.07323
41 181 5.82777
42 181 6.72715
43 181 7.72315
44 181 8.76731
45 181 9.82984
46 181 10.8753
47 181 11.8874
48 181 12.8737
49 181 13.8284
50 181 14.74
51 181 15.6053
52 181 16.4087
53 181 17.103
54 181 17.644
55 181 18.0211
56 181 18.2377
57 181 18.3166
58 181 18.2829
59 181 18.1511
60 181 17.9393
61 181 17.6657
62 181 17.3342
63 181 16.9329
64 181 16.4341
65 181 15.766
66 181 14.7529
67 181 13.2451
68 181 11.4179
69 181 9.58995
70 181 7.85915
71 181 6.21445
72 181 4.69528
73 181 3.34221
74 181 2.15733
75 181 1.12894
76 181 0.261279
77 181 -0.456124
78 181 -1.03835
79 181 -1.47605
80 181 -1.79293
81 181 -2.02257
82 181 -2.17478
83 181 -2.26937
84 181 -2.3274
85 181 -2.34995
86 181 -2.32705
87 181 -2.25359
88 181 -2.13936
89 181 -2.0021
90 181 -1.87496
91 181 -1.86684
92 181 -2.13438
93 181 -2.82471
94 181 -3.72593
95 181 -4.66017
96 181 -5.37393
97 181 -6.47991
98 181 -10.0205
99 181 -14.4109
100 181 -17.1953
101 181 -19.1178
102 181 -20
103 181 -20
104 181 -20
105 181 -20
106 181 -20
107 181 -20
108 181 -20
109 181 -20
110 181 -20
111 181 -20
112 181 -20
113 181 -20
114 181 -20
115 181 -20
116 181 -20
117 181 -20
118 181 -20
119 181 -20
0 182 -20
1 182 -20
2 182 -20
3 182 -20
4 182 -20
5 182 -20
6 182 -20
7 182 -20
8 182 -20
9 182 -20
10 182 -20
11 182 -20
12 182 -20
13 182 -20
14 182 -20
15 182 -20
16 182 -20
17 182 -20
18 182 -20
19 182 -20
20 182 -20
21 182 -20
22 182 -20
23 182 -20
24 182 -20
25 182 -20
26 182 -20
27 182 -19.2686
28 182 -16.099
29 182 -10.6402
30 182 -5.76989
31 182 -3.03564
32 182 -1.53017
33 182 -0.422317
34 182 0.458534
35 182 1.21152
36 182 1.9241
37 182 2.61614
38 182 3.2858
39 182 3.94229
40 182 4.60448
41 182 5.36341
42 182 6.30668
43 182 7.40438
44 182 8.58526
45 182 9.7933
46 182 10.972
47 182 12.0954
48 182 13.1721
49 182 14.207
50 182 15.1896
51 182 16.1025
52 182 16.9187
53 182 17.5976
54 182 18.1159
55 182 18.4701
56 182 18.6641
57 182 18.7176
58 182 18.6548
59 182 18.4914
60 182 18.2405
61 182 17.9326
62 182 17.583
63 182 17.1814
64 182 16.7062
65 182 16.1001
66 182 15.2156
67 182 13.7969
68 182 11.8638
69 182 9.79804
70 182 7.8044
71 182 5.90543
72 182 4.16784
73 182 2.64066
74 182 1.32267
75 182 0.194108
76 182 -0.738333
77 182 -1.48702
78 182 -2.07664
79 182 -2.5041
80 182 -2.80368
81 182 -3.02846
82 182 -3.20015
83 182 -3.32409
84 182 -3.40317
85 182 -3.45053
86 182 -3.44766
87 182 -3.37603
88 182 -3.2982
89 182 -3.24494
90 182 -3.20307
91 182 -3.33758
92 182 -3.85395
93 182 -4.88215
94 182 -5.77706
95 182 -6.9662
96 182 -8.6734
97 182 -11.0482
98 182 -15.5213
99 182 -19.1853
100 182 -20
101 182 -20
102 182 -20
103 182 -20
104 182 -20
105 182 -20
106 182 -20
107 182 -20
108 182 -20
109 182 -20
110 182 -20
111 182 -20
112 182 -20
113 182 -20
114 182 -20
115 182 -20
116 182 -20
117 182 -20
118 182 -20
119 182 -20
0 183 -20
1 183 -20
2 183 -20
3 183 -20
4 183 -20
5 183 -20
6 183 -20
7 183 -20
8 183 -20
9 183 -20
10 183 -20
11 183 -20
12 183 -20
13 183 -20
14 183 -20
15 183 -20
16 183 -20
17 183 -20
18 183 -20
19 183 -20
20 183 -20
21 183 -20
22 183 -20
23 183 -20
24 183 -20
25 183 -20
26 183 -20
27 183 -20
28 183 -19.2694
29 183 -16.1437
30 183 -10.7988
31 183 -5.97871
32 183 -3.13416
33 183 -1.49299
34 183 -0.33245
35 183 0.565971
36 183 1.33836
37 183 2.05477
38 183 2.74801
39 183 3.42883
40 183 4.10382
41 183 4.86498
42 183 5.84136
43 183 7.04296
44 183 8.38088
45 183 9.75243
46 183 11.0781
47 183 12.3252
48 183 13.4929
49 183 14.5958
50 183 15.6314
51 183 16.5711
52 183 17.3826
53 183 18.0369
54 183 18.5256
55 183 18.8502
56 183 19.0196
57 183 19.05
58 183 18.9578
59 183 18.7548
60 183 18.4524
61 183 18.0973
62 183 17.7208
63 183 17.3097
64 183 16.838
65 183 16.2682
66 183 15.5098
67 183 14.251
68 183 12.3114
69 183 10.0188
70 183 7.70181
71 183 5.48176
72 183 3.46111
73 183 1.70975
74 183 0.243547
75 183 -0.966326
76 183 -1.93777
77 183 -2.68683
78 183 -3.24464
79 183 -3.64822
80 183 -3.94454
81 183 -4.18155
82 183 -4.38742
83 183 -4.54629
84 183 -4.64924
85 183 -4.74999
86 183 -4.81044
87 183 -4.79021
88 183 -4.94205
89 183 -5.2554
90 183 -5.38176
91 183 -5.54704
92 183 -6.78407
93 183 -8.96515
94 183 -9.87032
95 183 -11.1972
96 183 -14.5422
97 183 -17.1512
98 183 -18.9805
99 183 -20
100 183 -20
101 183 -20
102 183 -20
103 183 -20
104 183 -20
105 183 -20
106 183 -20
107 183 -20
108 183 -20
109 183 -20
110 183 -20
111 183 -20
112 183 -20
113 183 -20
114 183 -20
115 183 -20
116 183 -20
117 183 -20
118 183 -20
119 183 -20
0 184 -20
1 184 -20
2 184 -20
3 184 -20
4 184 -20
5 184 -20
6 184 -20
7 184 -20
8 184 -20
9 184 -20
10 184 -20
11 184 -20
12 184 -20
13 184 -20
14 184 -20
15 184 -20
16 184 -20
17 184 -20
18 184 -20
19 184 -20
20 184 -20
21 184 -20
22 184 -20
23 184 -20
24 184 -20
25 184 -20
26 184 -20
27 184 -20
28 184 -20
29 184 -19.2897
30 184 -16.2442
31 184 -10.9136
32 184 -5.94119
33 184 -2.97391
34 184 -1.32902
35 184 -0.190426
36 184 0.690193
37 184 1.44817
38 184 2.16944
39 184 2.88157
40 184 3.58085
41 184 4.35381
42 184 5.35789
43 184 6.66304
44 184 8.18028
45 184 9.72763
46 184 11.1919
47 184 12.5544
48 184 13.8099
49 184 14.9781
50 184 16.0618
51 184 17.012
52 184 17.7992
53 184 18.4208
54 184 18.8779
55 184 19.173
56 184 19.314
57 184 19.3147
58 184 19.1861
59 184 18.933
60 184 18.5741
61 184 18.1654
62 184 17.7442
63 184 17.3004
64 184 16.8063
65 184 16.2354
66 184 15.5343
67 184 14.419
68 184 12.5733
69 184 10.137
70 184 7.46655
71 184 4.83098
72 184 2.45955
73 184 0.47801
74 184 -1.1113
75 184 -2.3628
76 184 -3.3262
77 184 -4.03991
78 184 -4.55757
79 184 -4.9516
80 184 -5.25958
81 184 -5.51307
82 184 -5.76871
83 184 -5.97494
84 184 -6.10957
85 184 -6.4177
86 184 -6.79409
87 184 -6.86575
88 184 -7.0056
89 184 -7.13374
90 184 -7.73677
91 184 -9.45453
92 184 -12.0979
93 184 -15.24
94 184 -16.5966
95 184 -17.1975
96 184 -18.9921
97 184 -20
98 184 -20
99 184 -20
100 184 -20
101 184 -20
102 184 -20
103 184 -20
104 184 -20
105 184 -20
106 184 -20
107 184 -20
108 184 -20
109 184 -20
110 184 -20
111 184 -20
112 184 -20
113 184 -20
114 184 -20
115 184 -20
116 184 -20
117 184 -20
118 184 -20
119 184 -20
0 185 -20
1 185 -20
2 185 -20
3 185 -20
4 185 -20
5 185 -20
6 185 -20
7 185 -20
8 185 -20
9 185 -20
10 185 -20
11 185 -20
12 185 -20
13 185 -20
14 185 -20
15 185 -20
16 185 -20
17 185 -20
18 185 -20
19 185 -20
20 185 -20
21 185 -20
22 185 -20
23 185 -20
24 185 -20
25 185 -20
26 185 -20
27 185 -20
28 185 -20
29 185 -20
30 185 -19.3079
31 185 -16.1864
32 185 -10.6838
33 185 -5.67614
34 185 -2.7678
35 185 -1.16073
36 185 -0.0634853
37 185 0.789332
38 185 1.55188
39 185 2.29912
40 185 3.03653
41 185 3.84082
42 185 4.89314
43 185 6.30923
44 185 8.00006
45 185 9.71301
46 185 11.2975
47 185 12.7581
48 185 14.102
49 185 15.3458
50 185 16.4757
51 185 17.4197
52 185 18.1647
53 185 18.7479
54 185 19.1781
55 185 19.4471
56 185 19.5571
57 185 19.5186
58 185 19.3392
59 185 19.0233
60 185 18.6013
61 185 18.1341
62 185 17.6543
63 185 17.154
64 185 16.6138
65 185 16.0055
66 185 15.2651
67 185 14.1538
68 185 12.3021
69 185 9.70479
70 185 6.7458
71 185 3.76664
72 185 1.08483
73 185 -1.07419
74 185 -2.72705
75 185 -3.97104
76 185 -4.8927
77 185 -5.56471
78 185 -6.06143
79 185 -6.47575
80 185 -6.79999
